# 3D point list with one line of data per point:
#   POINT3D_ID, X, Y, Z, R, G, B, ERROR, TRACK[] as (IMAGE_ID, POINT2D_IDX)
# Number of points: 395, mean track length: 3.6212499999999999
473 -20.464971197979839 -2.9628902255915555 37.666489900243164 138 107 59 0.44297069258771116 15 938 17 1102 16 1167 13 711 25 1656
472 -20.38668976283418 -3.0933787075810897 38.287386561531704 129 101 62 0.16221180941617666 15 656 17 1101 16 1134 13 712
470 -25.242690520557016 -3.1597560273159657 35.256467980076863 148 116 82 2.1777849023563913 15 300 17 1099 25 1655 25 3126
469 0.41381823755828884 -0.15509248472427145 4.7297874424907871 78 38 13 2.2970841067273691 3 4229 15 2050 17 1098 41 3403 7 2724 13 2044 8 1601 9 1655 6 1406
468 0.62940819455359209 0.43907550841878867 4.7292914734015437 131 109 63 0.49326777283713819 3 1155 17 1019 15 990 13 2186
467 -0.57615271371956411 0.45361240911674133 4.6032900932725873 103 78 61 0.78397535523309969 15 1575 17 1015 3 1931 16 782
1576 -2.6228895360873357 0.65700379212728988 6.5852750978429864 219 173 116 0.43129315805185675 11 1327 8 2095
466 0.64901569061980025 0.56829833672547292 4.7666081451822482 130 113 64 0.6173763761070914 4 2565 17 974
1575 8.2515359616098944 5.8672004913468117 35.204157432414441 105 70 41 0.40344703769712975 15 2967 8 2021
465 -25.822691087407406 -3.3909143444937628 35.218540818028565 170 135 94 0.83022394398927934 15 539 17 930 25 935 24 395
1574 -2.5171126039506877 1.4061098901705378 8.3452345493410842 125 93 61 0.73994397597236095 4 3237 8 2009
459 -0.57704454788551107 0.43629805019454132 4.607128595394526 42 18 0 1.3052451206575371 3 424 15 686 17 792 16 662 8 841 7 969 25 1158
1568 -0.51638617309982959 0.16674683662519912 4.8354954700783992 112 76 54 1.16726499435602 41 1279 8 1722 9 1604 5 1030
458 -0.022082221452038718 0.39477848714390762 4.6913035809424608 73 43 27 0.84061064869630053 15 1534 17 788 41 427 16 663
1567 8.4200889718857947 0.4235404219604042 10.36157094705716 109 87 72 0.89294373433735585 4 294 8 1715
1566 0.74425278867362099 0.07542302138733134 7.3649253677947559 0 0 0 1.367720652634387 10 1666 13 2013
456 -0.25185808602798693 0.38942287080528604 4.817441300461403 113 91 71 0.56301861441333978 3 716 17 783 16 666 13 1744
1565 -0.16578570269437629 0.099840261634354097 4.8012071096013358 131 104 72 2.1879590701814373 17 2257 8 1693 15 1707
454 -21.929453890025243 -3.0283313489532433 37.357385300184774 144 130 85 1.0040091946305065 15 655 17 754 13 304 25 1654
453 -10.238447754683436 -11.092188502155567 134.95078203773383 253 225 155 2.0867600648621654 17 749 10 343
1562 -5.7105998840999614 0.47907064452698367 45.646649297044533 0 0 0 3.1263773235738483 7 1719 41 3324
452 0.16694049178536388 -0.56634306503117071 4.8141295926138357 111 68 54 0.94806575651249825 15 968 17 745 16 685 41 312 13 992 4 1030 12 2264
1561 -0.34492590619306607 0.28902432878609563 4.5005123954728496 0 0 0 0.24906525118574496 11 1736 41 5505
1560 0.17203488329462974 0.25946527650480927 4.5836495104132462 112 71 50 1.2189971374925279 4 1970 8 1617 9 1751
450 -0.36152050027603283 0.13371638450780654 4.6841551753462412 98 62 53 0.57142748211218175 15 643 17 729 10 2380
1559 -0.55205543494455434 0.2517273218624565 4.8364745200730344 102 67 42 0.055173227172409495 3 2488 8 1613
449 3.5501872384942748 0.4270069410412568 20.270351303753124 254 203 138 0.94477272573678872 15 944 17 728
1558 -0.32006060446184287 0.24542249930155616 4.7077902767749826 136 104 84 1.8035312895016113 11 830 8 1608
448 -6.4814858391157326 0.055490041032880244 8.721154070321818 85 57 48 1.8880710033838466 15 1760 17 723
1557 11.298089778916108 0.22628933375242552 48.740695092469394 203 155 100 0.96785657958406957 11 1623 8 1607 5 1008
446 -28.678117086050481 -3.7716453272818264 36.621721631648093 158 120 82 1.3010177017296609 15 292 17 645 41 340 42 459
445 0.1377986407866798 -0.63871445512382641 4.7613543369748577 166 148 121 1.8713056710514704 15 2032 17 642 3 2583 16 197
1554 -0.70743378074167229 6.1900810837238867 20.101035016459345 99 82 74 1.6604585208390492 10 1856 8 1528
444 -22.373735059384771 -2.6912616478589046 36.817133742101092 110 80 52 0.75031735058858284 15 928 17 622 41 1262 16 1163 42 639 25 1649 43 1189
1553 -2.301843866425779 0.40886962145481276 14.610073995764544 197 160 120 0.26090536531939579 11 782 8 1520
443 -21.876212040300889 -2.9947476860622433 37.613942537130221 107 80 48 1.107485494480104 15 186 17 620 16 517 13 205 42 445 25 932 43 314
1552 9.2574457750432 5.0358616095039102 13.48246593558568 57 52 54 1.3666293791860711 4 1160 8 1479
442 0.39645682157066187 0.48813991304093546 4.6405568705838567 65 40 52 1.355376136073362 3 461 17 522 9 707 5 636
441 0.23287316659593738 0.50044707128520505 4.6134635930299215 59 42 49 0.37702586317882614 3 458 41 297
1550 5.5123786522586551 3.7847004530092589 40.717169839352501 216 189 86 0.75458916164074497 3 958 8 1450
440 0.1055696428579431 -0.41513102689162323 4.7264565803637115 107 65 56 1.4111558444213281 11 250 17 503 6 329
439 -20.515877367412862 -2.9718976227612415 38.169105520401153 129 95 54 0.34865471823771221 15 285 17 501 16 516 13 313 25 929
1548 -0.56968516867983399 0.63050478319564107 4.7266163328040109 159 132 116 0.77471816866118426 7 1389 8 1384 6 1152 5 1497 3 3328
438 -23.904517610984392 -2.8430746012041328 35.58115402525079 119 86 54 0.31303719708201033 15 286 17 500 25 1063
437 -20.586651940013411 -2.7844720287571096 38.014017497354544 182 145 103 0.3948633041911504 15 537 17 499 16 513 13 318
1546 3.4272522164514068 0.21824669379854036 21.058754074480323 164 126 89 0.24794579429246272 11 1630 9 1622
435 2.599029493776507 0.90881459912701335 2.7148041202818862 57 32 31 1.2765323712639096 4 1251 17 385
2791 -41.964798298881171 -3.1610518481878591 22.850883094800601 147 120 113 1.5190098617959589 16 42 39 70 42 44
434 0.22898262350422754 -0.47194828095634966 4.5712867712204055 187 166 110 1.2587612060520279 17 358 41 153 42 2782
433 -22.862145122921625 -3.3690922246981887 36.745049091801775 143 132 94 0.70288844680652063 15 240 17 354 42 455 25 515 43 567
432 -26.060320419985441 -3.3291065512441733 37.810560529502141 135 127 77 1.3642250108741729 15 288 17 349 41 334
1541 7.7819419998676596 2.7674124551181802 43.674322189055054 255 237 130 0.86379596490759225 8 1316 15 1528
430 -24.625057762623136 -2.7074339182547029 34.864668226242181 129 93 73 1.4701040723923191 15 284 17 345 42 660 25 419 43 556
1539 0.64379778025219481 0.46823954656158223 4.7295097659795964 117 95 77 1.0456385933565309 41 1076 8 1300 9 1467 6 1528 5 1722
429 -25.973286265184033 -1.8503404214361352 35.116191906166158 123 92 69 0.68724658050850185 15 318 17 341 41 333 42 641 43 472
1538 0.3810671355363735 0.29807126510485871 4.7126313236370621 115 86 65 2.1565581713677906 4 1641 8 1291
428 -25.925004854531188 -1.7728618420139519 35.495284227145973 120 89 70 0.36722015962226706 15 189 17 340 41 221 42 366 25 430 43 332
426 -22.731000631951403 -2.5046660540498822 33.744196592175491 138 104 73 0.95800531516642196 15 322 42 440 17 334 43 555
1535 2.149132927870621 1.287655274902008 4.0372077744384285 46 38 37 2.1773312909199509 3 499 8 1265
425 0.14718239584722162 -1.0002631840098015 4.7253890837175554 161 152 142 1.0701745394804607 3 276 17 327 41 315 16 327 7 919 8 570 9 641 10 832 11 454 5 478 42 420 25 808
1534 -3.1181893739417634 1.6942707313741352 4.7283679125717724 45 28 20 0.78970865391230327 13 1828 8 957
424 7.8779635340727632 -5.6740237489188079 44.557176154863278 255 242 200 0.91496768837062226 15 492 17 325 13 309 10 651 7 511 8 240 9 286 6 373 5 398 12 806
1533 1.3886222642246238 1.2381353165112343 2.6343477773303641 36 29 29 0.55876951817186815 7 2143 8 903
423 0.14390582121571235 -0.53765674697118959 4.7570993543943203 174 156 114 1.7258658626090155 15 1999 17 321
1532 0.5319883935118761 0.47181878345226497 4.7962509829279973 102 85 60 1.6733730945232193 3 166 9 1043 12 1090
421 0.1352212878436212 -0.5127170194000148 4.7167165019936599 56 25 13 0.8711805772183927 15 660 17 316 41 204 16 317
420 -0.23286699057393861 0.44202357033485312 4.683706378115903 94 75 63 1.0570545321771525 15 313 3 160 41 693 13 688
418 0.20699041458234343 0.42865242787512353 4.6870723401221328 121 93 66 1.7842856237095737 15 256 17 312 41 128 10 358 8 103 7 169
1527 0.05871248052415419 0.53336192970392604 4.5648139358529312 24 11 19 1.740143771177306 7 975 11 2538 8 731 9 717
417 0.10306080096415854 0.4709052066366145 4.6544278667390344 55 32 29 2.0806200762580529 3 112 15 257 41 125 16 207 13 333
1526 -0.58021598636045291 0.67302127605621387 4.7825518354011249 156 128 89 1.9883786711250033 7 1917 8 718 9 1553 6 1742
1523 25.412554939236472 8.1583950543226536 21.469825646783903 22 19 23 0.91645741972941419 4 1811 8 606
413 -0.24390383152569042 0.40850939557974442 4.7411827813783276 75 49 58 0.74145515979904353 15 577 17 279 13 611
412 -0.13285689954717506 0.40733949828344174 4.6997242387162173 63 38 51 0.22671152859268295 17 278 9 310
1521 -0.34380032779552999 -0.43916878168130818 4.7032791587748068 225 196 135 1.1451572362464726 15 1738 8 568
411 -25.085237810073387 -3.0379776500200961 35.557437960049533 110 75 50 0.97736038667506264 15 185 17 219 41 201 42 279 43 224
410 -24.893411334567343 -3.5522101586514543 37.764415546405445 108 81 52 1.5382285620698406 15 123 17 215 41 149 42 108 43 155
666 -0.49766325041218784 -0.33844569192640528 4.9990551762771345 187 157 115 1.4856381410957242 17 755 41 498
382 5.8892615671567636 -4.9102268852584778 44.877311111419118 255 255 161 1.5689295344763121 15 55 17 72 13 70 10 95 7 90 8 57 9 42 6 50 5 63
1491 16.314889991121426 -6.545022169071534 41.232801754851081 187 173 130 1.2311510836891537 7 26 13 34 8 34 9 22 6 23 5 26
2473 -28.138320117786602 -3.7858179806617271 32.885444113005235 182 133 94 1.0535906020081658 16 2650 17 2360 25 5607
116 -0.4202132979437464 0.41937520080348667 4.8361420444672127 120 108 40 0.5478493126525128 4 91 15 86 3 79
1225 -0.37173794996975718 0.15736316541902368 4.7069977019139442 136 72 57 0.52555764793010462 11 1527 10 2390 7 1831 41 4897 5 1580
373 -3.1083492820513809 -5.8358221715737182 39.229953689888511 229 207 158 0.59958837312648994 17 43 6 17
1224 0.52841171843915569 0.15568204832406998 4.7394677908030456 0 0 0 1.5423511507886294 3 2442 13 2033 4 2075
110 0.084503639222923213 0.86484551759759742 4.7701412700869392 72 41 32 1.3677297674294953 4 50 3 44
1219 -5.8688137935505509 1.7709775105231869 14.106659822034205 150 135 74 2.28331971935097 13 1587 10 2281
2464 0.07147892194208294 0.53776240007575149 4.5987259580185089 44 41 56 0.14677795897326684 42 3991 25 4102
107 0.62486756859606407 0.60568579776892151 4.7122441754847006 115 83 49 1.3974354587951545 4 58 3 38 17 65 41 56 8 90
1216 -0.57054018049408894 0.59559398385153872 4.6176142261137292 0 0 0 1.9399694557629958 3 567 17 3307
2721 2.2981229732563713 -0.088846239269153846 3.1879083545664195 244 199 157 0.30341611687897174 43 2889 20 2370
364 -22.760711405701255 -2.4546982340635037 40.362544424952816 108 73 58 0.3844601914918141 17 27 13 15
1473 -0.4403059019837382 0.46552636439031453 4.6661599494708446 59 22 20 1.4284069179132814 15 98 3 78 13 214 4 122 11 75 10 154
644 0.45662892389713539 0.47823791489713618 4.6900514282722305 119 87 81 2.5128137630731913 41 187 8 859 17 524
103 0.30037256706636983 0.38118931634309655 4.7640149518755965 154 127 90 1.5735565737105173 4 21 15 36 3 19 17 31 13 36 12 31
643 0.053646455866446209 0.28326593670229333 5.1660350035436391 119 73 52 0.20161977190662364 17 286 41 184
2459 0.35242335433372007 -0.072782944300693125 4.8487290799212177 121 73 49 0.11933221991076583 42 3771 25 3733
102 0.43483182651083152 1.108364734559089 4.7483524432141904 61 23 15 0.89082427201448178 3 13 17 18 7 34
2458 -0.073062182767753434 -0.059816829943730429 4.7977514460643107 104 63 46 0.13157215461281502 16 2730 25 3728
101 -0.69393684610602613 0.92890497618365764 4.7811455247883163 76 66 44 1.1573970910065332 3 6 13 13 10 23
1210 -0.16333571965473628 0.16693645441234489 4.8175101388797632 89 40 20 0.60503038652789309 15 572 10 1870 3 290
2715 -47.636355957258019 -5.7549789334829375 23.049241436353938 155 122 115 1.3250912233535888 16 62 25 87 42 109 20 89 39 111 43 104
358 4.3617891910842959 -0.88426790961756097 22.740231083968343 255 255 255 0.51194127821198177 17 0 13 1
1467 0.56225303197231935 0.33185433097638417 4.8001031537089629 154 114 76 2.0614523389940413 15 1557 13 1919 10 2397 11 1256 7 1570 7 1710 13 1955 3 670 9 1784 6 1338 5 1756 12 2194
2712 -40.108008651913394 12.749061455053555 40.586266391772142 101 100 98 0.83341408496726033 16 591 24 1818
355 0.59189463001020903 0.6275156139084388 4.7060433532180639 118 94 70 2.1952018926589703 15 2642 11 2510 16 2122 8 2126 9 1593 42 574
1464 4.2759760989975986 4.5699702741582922 20.399229287934496 87 66 53 1.5315449324311508 15 2767 7 2660
638 0.37055670962070514 0.4665765529176481 4.6854677177693311 109 79 62 0.22283449965099555 41 143 12 344
2454 -31.150672677727229 0.47578855631844602 33.181388443523623 141 113 111 0.25731733285148134 17 2247 25 3649
97 0.60892574004456113 0.5569889528414278 4.7311740435286485 50 22 11 1.1493704559037188 15 3164 4 2552 7 2044 8 2186
1206 0.09357524602751946 -0.88271240738358225 4.7245577836670414 61 22 5 1.2203836843172966 41 3289 10 1678 9 1381
2711 -38.451381370799901 13.405501557944001 40.629199723380061 107 106 109 0.63124693510769636 16 1323 24 1564
354 0.62256215274812221 0.47567373288340598 4.713516606325574 37 9 0 0.82541082619073869 4 2179 11 1996 8 1752 41 2659
1463 26.061359367449509 25.863391360821215 150.6041444096771 87 53 34 0.35054499097258596 15 2923 7 2554
2453 -23.66080433143836 0.41413903357137272 26.635249481276926 76 49 44 0.33068911190103717 41 3332 25 3646
96 0.11281667287098009 0.38023543546427441 4.7134747519586666 147 119 90 0.40249638060671034 15 3130 4 2240 3 2948 17 2538 12 2243
353 -0.58962740083931298 0.58561862511069396 4.6774170075045163 163 125 113 1.3772953431387309 3 3255 15 1683 11 1866 13 924
1462 -2.041555494249244 3.3722139247023324 14.095937612070204 147 118 98 0.00043669063346728383 4 2815 7 2441
636 0.12905510979891499 0.035724455220523046 4.8181737258785411 127 105 71 1.8091283112229171 41 140 16 129 17 724 25 68
2452 -28.19049676875111 -3.7782695531996247 32.811942934925881 253 204 165 1.449883741605132 16 2651 25 3634 17 1153
95 0.1042993567530995 -1.0268190857216903 4.7198759561135173 192 180 154 0.76448356964514408 15 3104 4 2200 17 2380 41 3293 16 2526 8 2655
1204 0.02669849007438526 -0.67677137318083114 4.7578096118850111 199 164 123 1.0818064786608559 15 2028 10 1675 5 2225 12 2268
352 0.1605841473845743 -0.2076980004038036 4.7062032568598013 128 82 66 1.0578294993636324 4 1561 11 1638 41 1245 13 1003 8 2392 10 2493 6 2098
2451 0.22172088224843467 -0.74406147551869073 4.7365242426032239 212 179 167 1.7362068294511577 16 2640 25 3613 17 2391
94 0.62214376805898952 0.45662887899934607 4.727917876314387 42 9 0 1.177950414564934 15 2957 4 1584 3 2135 17 2064 16 1206 13 2239 10 2638 7 1986 12 2394 41 1367
1203 0.15271541586192405 -0.66456365354117031 4.7196203028138939 137 79 68 0.42535684927099782 11 776 10 1674 7 1809 8 1296
350 0.41712950606286758 0.30264063121698404 4.6804077819583068 131 106 79 1.1225346329415486 11 1250 13 1664
1459 -1.0394576022687303 0.016742379134813905 7.3817017260009239 0 0 0 2.5008248679952931 3 2602 41 2878
633 -0.37573947500269667 0.52372562945711998 4.7727641911478518 53 46 60 1.1702354593500406 3 114 16 135 15 164
1458 0.19407778113972429 -0.83661683239458462 4.7094948727528569 220 196 150 1.9960265844955682 13 1991 7 1805 12 2273
631 -0.44206034176221903 0.4635863413205214 4.6377971744569875 42 15 10 1.1134633273785559 17 183 41 112 16 122
2447 -26.995422090081604 -3.1395271119777912 34.753039552915425 210 168 130 1.1256350987357728 16 1964 17 973 25 3559 24 1252
90 4.6468121565319267 0.76471569347895896 6.3867051041147107 122 100 53 0.015398379986335049 15 2637 4 2602
2446 0.29010922762102431 -0.33951655870111769 4.7870424193581673 183 129 108 0.14433171018049948 42 3563 25 3555
89 -1.6878831655064037 0.68528852774157467 2.7993512555191984 48 39 33 0.3392325971945383 15 2420 4 3143
1198 0.0024573843908630997 0.41165549976704019 4.5804005302332174 63 29 14 0.36546125929212314 11 697 10 1639 7 1545 8 1310
2703 -52.742459742935672 -5.1412909441007768 24.417854287509208 170 154 153 1.9410803431956307 16 486 25 1607 24 1249 20 1233 39 941
346 -0.076060814760522177 0.46986878137407795 4.6853170327556519 51 14 11 0.035660188615085561 3 243 11 220
2445 -15.617823901018705 7.8381884289892838 46.245365311371501 176 151 101 1.3624019206873457 15 459 25 3492
88 -0.62144075960352629 0.74215786466646072 4.6342055337560364 113 97 77 0.20418087991994027 15 2366 4 606
1197 0.050516927872909033 0.45969295775390917 4.6679060828948122 45 7 0 1.1156898121153915 11 1390 10 1628 7 970 8 491 8 1748 9 703 5 491
2702 -50.663552711039969 -4.423824457385269 23.761571220589008 175 157 156 1.4364454409682625 16 348 25 1055 24 1244 42 649 20 1014 39 429 43 1176
345 0.60148141396653199 0.51032645670846399 4.7452197880171436 52 24 26 1.0617180407474627 4 60 11 63 17 70 10 92 7 83
1454 -0.3372823770128433 -0.072625774069366822 4.6860861142511467 185 146 107 0.76670774180795509 10 2498 7 1486
2444 0.1063217328043055 0.46268116462928593 4.7177577962543289 133 98 101 0.13210645539781049 42 1754 25 3455
87 0.57237444354075073 0.3565374833563415 4.7541524400948125 61 28 1 1.6849163923180726 15 2290 4 2269 13 1935 8 1857 11 1263 12 2249
2701 -52.275351589019515 -3.691788063076761 23.913682607287516 172 147 143 1.3519823763418448 16 339 25 424 24 865 20 555
344 0.27777922544402561 -0.72587582795814587 4.709110838483026 232 211 141 1.5318754557109675 3 39 11 51
627 -0.50406351075810796 0.43095024947817484 4.9077544827993256 98 84 59 0.41792009536063779 17 125 41 101
2443 0.22271768139958617 0.25070187742516253 4.6396201374784196 112 73 59 0.040160185210895066 41 3117 25 3409
86 -0.60300036807671098 0.36175244140199753 4.8304526885554901 34 8 0 1.2283483047005324 15 2283 4 1991 3 1879 11 1785 17 2677 13 1941 10 2603 6 1517 16 3861 5 1729
1195 0.59509801551802444 1.1711187931162019 4.6533416405813863 119 103 68 0.73696643009954954 11 2423 10 1414
2442 0.49341420124016089 0.051751698348140168 4.7892948504260842 148 97 69 0.25402550839369509 16 2667 25 3216
85 0.1341016957001965 0.37029355253670349 4.7132586116062596 50 19 2 0.64221258061838593 15 2255 4 1620 3 1988 11 1677 17 2527 41 2513 16 2536 9 1718
2699 -50.647617579884503 -3.1749402089683723 23.069800694881479 136 111 110 0.49581564562719643 16 200 25 331 24 365
342 1.2336488355645565 -0.86122276640466022 4.7722875265730202 206 188 128 1.8677330318898377 4 27 11 23
1451 19.684991893909178 8.0312027972323676 43.469887360091789 120 106 81 0.35249512763751878 15 795 7 1087
2441 -26.952582541225897 -3.7452040913510158 32.856771736419127 179 152 113 1.1797780175672183 17 1857 25 3148 24 3422
84 0.14242634989172615 0.31048549747434495 4.7081897410456417 157 121 113 1.5349376066266194 15 2247 4 1662 3 2847 5 2226
1193 -7.101415253991366 3.1608435439274989 39.650509737059267 151 132 66 0.062836888440784652 4 2283 10 1195
2698 -49.837046570505237 -2.6451839029674411 25.097946311968727 174 155 130 1.1384446841094671 16 155 25 205 42 165 24 343 20 292 39 204 43 276
341 -0.19757131454693369 0.26355136718772354 4.8109602649467087 94 59 28 0.76215546861225858 3 2513 11 2540 15 1945 13 1878 10 1696 7 1720 17 3904
1450 6.163504823430852 3.031128907215054 43.21616883771955 255 243 129 1.1248148928362447 13 215 7 953
624 -0.68139577882141988 0.070654192161661425 5.0255002549226164 112 95 69 0.50832005520699663 17 99 41 73
2440 -28.55862010958559 -3.6805015793128564 32.028450035067479 217 176 149 0.66363247547881998 16 2360 25 3142 17 2365 24 6008
83 -0.57951200281846149 0.32005606744407122 4.810658656720963 173 142 99 0.26098813339133914 15 2242 4 1949
1192 -0.21745195252521288 0.41016627764632324 4.7400938730458559 68 19 10 1.004200566989371 11 1718 10 1162 8 847 7 909
2439 -1.6773462588790409 -0.55167017760263304 6.067021273411167 91 60 41 1.626324552488142 16 3849 25 3134
82 0.1950557658252231 0.29610535164108315 4.6955276282995495 155 122 103 1.4317181898786453 15 2237 4 1944
1191 0.55373553378215867 0.2954450172648676 4.8132487754626805 100 62 45 1.3776276621660728 3 2944 15 2227 10 1149 9 670 6 1084 5 719
81 -0.2086192427236731 0.2987203250864216 4.8086408389804802 76 41 11 0.58216378985176154 15 2232 4 1656 3 2470 17 2624 13 1937 10 1693
80 0.66971264527662189 0.45301313667025894 4.7202555979027983 178 146 102 1.3440384503465892 15 2158 4 2139 41 3414 12 2570
2436 -32.543131397711591 -3.3107405943783959 29.747379066402715 159 137 118 0.45398127917745928 16 1924 25 3125 24 3459
79 0.65822235202527357 0.41056513594146282 4.7282616591592284 178 146 104 0.55831501093072922 15 2144 4 1551 13 2206
1188 0.29135309885466476 1.8560415831559756 5.35455951502039 80 46 42 1.505243716476151 11 186 10 949
2693 -52.086393337632622 -4.6362163237803049 22.955730131159203 181 145 135 1.5623529363540516 16 92 24 218 25 238 20 166
336 0.52086836361976196 0.098011215605669125 4.7434370098100187 151 121 95 1.3808653185335695 3 1063 11 2531 8 1696
1445 0.43462382730488175 1.3924500998387388 6.3818541210103348 0 0 0 0.50542468545125097 10 39 11 32
619 0.14434033712099631 -0.53526436401005029 4.6594804569924566 65 27 17 0.89255772379701614 3 12 16 59
2435 -29.936825543869649 -4.3986507793631748 31.877262555939897 175 149 115 1.4561772295634272 16 1940 25 3096 24 3427
78 0.49346595357582468 0.027901058803835838 4.7447562621314789 182 141 114 0.90742659431622286 15 2081 4 2109 11 1633
2692 -50.056956233566325 -5.2755418230140876 23.867634662884111 185 165 156 2.5376440767997903 16 71 25 116 24 151 42 104 20 165 39 206 43 215
335 -0.0081485013194388806 0.16789221283281167 4.8311706427970469 88 39 19 2.1671491211905631 11 2525 17 3894 15 1901 5 1577
2691 -48.831762148500047 -7.7351785183593611 22.100459293768932 185 176 170 2.1184014140503544 16 66 24 144 20 124 42 75 43 163
334 0.10135689878652181 0.39033868738755928 4.7305254022407732 70 37 10 0.36171746927159248 15 2277 11 2491
1443 5.2267006950548964 3.4875619579354016 35.958662072573169 215 165 93 2.0231131012984704 11 41 5 41
617 -0.63124742149631086 0.16398353277645278 5.1542717213495877 95 56 44 2.5726410950269796 17 56 41 45
2433 -28.891985679284737 -3.2535005789531342 34.143612935843592 193 150 124 0.43593256601764807 16 1922 25 3065 24 1250 17 351
76 -0.50573235750625045 -0.055594761554249791 4.8101633164267312 183 139 91 1.2135000444908179 15 2057 4 1546 3 2657
2690 -28.330998106709981 -4.0017123932673524 31.4224200389739 211 170 123 1.2672734378564214 16 193 25 117 24 135 16 1143 17 746 25 1626
333 -0.064257030029005249 -0.247205049514584 4.7814902442319918 100 50 2 2.0491917817023118 3 4236 11 2482 41 3372 7 1778 6 1396 5 1660
1442 7.1576698765967359 6.8560705260009849 41.937192269439329 125 88 66 1.5825908393056358 17 48 7 16
2431 -27.781935052578454 -3.1037830659708892 33.444035399685369 183 145 128 0.46550942868270567 17 1114 25 3062 24 3464
74 -0.33673663199302745 -0.22955964229575859 5.9958919460117084 81 47 8 2.0165404664404898 15 2048 4 2033
1183 -0.67636399690244098 0.83012713655352055 4.741725858631197 124 86 56 0.54179965118408291 11 328 7 401
73 0.28213628951665609 -0.57183321075694948 4.7202150480597451 241 209 165 1.4162792329793994 15 2037 11 2467 3 4166 10 2434 6 1374
1182 -0.61890302265640629 0.82814825253040902 4.7431162946292416 131 92 68 1.6008285948054475 10 811 12 538 8 754
613 -9.320740627494553 -5.1938558042077192 44.994180910279397 203 189 133 1.2330364637498856 4 24 13 29 10 19 41 37 17 38 12 16
2686 -3.4913437613484266 0.078461098376712071 4.6305555762111599 132 110 115 1.0884939284430646 43 4792 24 5712
329 0.22937418154474795 0.4530627284103465 4.6281988039796307 49 22 3 1.3323415362839328 4 1966 11 2053 10 2617 13 1710 12 2384
1438 0.18710338910794849 0.047831687830657464 5.5567976821400986 104 64 52 1.6488519403452764 17 2251 7 2736
71 0.13582103382698951 -1.0191205586406693 4.7244612517740672 54 37 17 0.76642983470681481 15 2017 4 2023 11 2469 16 1999 8 2140 42 3639
1180 -0.048538761381360054 0.42726405944859813 4.5942682594148927 145 113 99 0.40662959665915988 11 520 10 773 7 662 8 547 9 370 6 498 12 765
328 -0.24840906314294259 0.42826952291929571 4.6700322679083079 35 2 0 1.061659994092768 15 1600 8 1768 9 1729 6 1553 5 1733
611 0.4309311505499907 -0.37610847123141306 4.7212150444552465 210 188 114 2.3700151801354368 3 23 41 32
2427 0.55953376860999748 0.27534670718717086 4.7754541524836114 87 49 42 0.14395022296085302 16 2485 25 2763
70 0.040408357359286218 -0.54833783749278242 4.7658741951973242 56 17 5 1.2665879208541075 15 2003 4 2070 3 2533 11 1210 41 3248 16 1954
2426 0.43838727233519348 0.49662796371148377 4.8729593140931389 27 11 2 0.28375635829111923 42 1672 25 2735
69 0.041936047223107557 -0.52131873963821818 4.7675268100440373 71 33 23 0.61428125738835948 15 2000 4 2074 3 2154 11 1585 17 1849 41 3245 16 2661 13 1973 9 2149 6 1343 5 2222
2683 -0.65890222890591021 -0.26812818481749096 4.146148857840557 144 102 80 3.1790049901567308 43 1785 24 4066
326 -0.56984156954848164 0.61782545785161602 4.6856438725165601 51 15 3 1.1184746697570056 3 2021 15 1667 11 1893 17 3284 41 4344 7 2734 12 2151
609 0.14047392361514122 0.24011359265304297 4.7526280778778069 73 41 34 1.4424121900927325 11 39 17 47 7 32
68 0.051565727183318644 -0.54466316482712995 4.7633797889473897 120 77 69 0.61117135597521399 15 1995 4 2071 3 2111 11 1245 17 2351 41 2407 7 2686 8 2002
1177 0.16515797090755649 0.28223998856373578 4.7095644591418289 71 26 19 0.96616043063400148 15 157 10 698 7 544 8 450 9 491 6 462 5 502
2682 -0.36057233447135173 -0.31481207927177207 4.1715519178624483 125 82 65 1.525244496835988 43 4737 24 4055
325 -0.56784175115414004 0.64677900340806127 4.6930703188213538 62 16 3 2.0453697104931803 3 3306 11 1880 15 2638 17 3194 41 4316 12 2036 13 2723
2424 0.13732398361554141 0.45564128090634365 4.7332791882621796 61 25 19 0.61728302833482607 42 3488 25 2708
67 0.06380726414304401 -0.54874866904394604 4.7610007589485424 64 22 11 0.37530846255305139 15 1993 4 1558 3 2112 17 2348 41 2364 13 2007 8 2004
2681 -0.32966231945828611 -0.11649128880886618 4.2108931136786563 251 206 173 0.04897045283124845 43 4849 24 4035
324 -0.60055393886228936 0.59477213631882353 4.6852341507537689 0 0 0 1.2157088672428253 3 966 4 2729 11 1863
2423 -18.6932325393132 10.77666789511491 45.725370176218306 76 64 42 0.13690439276741256 15 505 25 2318
66 0.53984615498036359 0.22203380209356602 4.7457942335967047 116 69 48 2.1067994070461622 15 1983 4 2098
2680 -0.91028230020236411 -0.087131383407593063 3.9784992521192577 216 174 157 2.1292653380573388 43 2746 24 4031
323 0.12960181594253214 0.34954970759184345 4.7108339839887083 61 25 7 0.65475931361490547 4 1997 11 1771 17 2699 41 2471 16 2586 13 1933 10 2406 8 1582 6 1318
606 -0.169233496771375 -0.38497382174927414 4.7516203352858941 169 162 92 1.9816999988846242 3 11 9 28 6 33 41 12
65 -0.16426540555133237 0.15650205278848664 4.8174495492916343 73 41 11 2.4774523893550233 4 305 3 2433 11 1522 17 2368 41 3357 41 3358
2679 -0.85460318253775391 -0.084022035530478364 3.9843850805541043 252 194 153 2.0800189154487065 43 2747 24 4029
322 -0.56089231067850531 0.29219748508542093 4.8380706651490035 114 62 35 0.95921054058029553 3 2462 11 1763
2678 -0.34995236514103129 -0.039348318526803101 4.2399634427163742 252 201 164 0.90675750343203887 43 4877 24 4016
321 -0.57293983021311934 0.27253143044983258 4.8212662729836495 176 130 100 0.4692212890881754 15 1955 11 1755
2419 -0.63740540437618454 0.38404711984594903 5.2374850826480612 116 85 73 1.0330405969984566 41 2483 25 1805
62 -0.15978993563146612 0.07951677888661994 4.8019475808423175 174 142 110 1.0382218027886942 15 1931 4 989 13 1008 13 2015
2676 1.5454054161431356 -0.12174553644961592 3.6865247312491825 140 97 64 2.1940162951613011 42 3590 24 3997
319 -0.1122167423200453 -0.054024880141774048 4.7908159720771248 81 27 1 0.66854201475081743 15 2060 11 1653 7 1849
602 -20.562619416052375 -2.7642424013446298 38.180088076653213 124 86 52 0.80933973695550998 15 2082 17 2461 16 2628 13 1686 25 3556 3 2544
2418 -32.312215505116356 -1.7504734683138587 32.047017957993809 174 143 110 1.2729275684958845 16 655 17 758 25 1782 41 493 43 784
61 -0.5503717186282957 0.17688413817665172 4.8305802651402594 170 137 103 1.6648940342624594 15 1914 4 2089 3 4212 8 1727
1170 2.7063080076457373 2.1837307611734671 7.3090743417269648 64 53 48 1.4916651168062296 13 855 10 487
2675 -29.227852112713261 -3.9302934592023275 31.281692061687998 215 178 157 0.75340607136204474 16 4248 17 2350 24 3961
318 -0.076268419498013593 -0.076441691142017057 4.8140007518813563 100 54 36 1.6487840513104113 3 688 15 940 41 442 17 1117 16 311 11 1651 8 1526
601 -20.501510587966131 -2.9583571440060616 38.482101222124996 160 131 98 1.2822358166716243 15 926 17 1881 16 1962 42 1573 25 3256
2417 0.39329741531921852 0.46588125119015239 4.7936132904172295 86 47 46 0.4806270350999704 42 1094 25 1726
60 0.52938637093779295 0.11783856357411866 4.7779052622066249 178 144 112 1.804442354785295 15 1912 4 3266 17 290 13 2025
2674 -0.3619985942982627 -0.39457950901710204 4.1499863729045643 149 110 98 0.49258252484869913 43 4713 24 3890
317 0.0024595809192885752 -0.066411849093059014 4.7607115853608812 88 40 15 0.5784565241256695 11 1649 41 3394
570 3.5500420107868478 0.64730260456553523 5.1462160122305933 173 132 105 1.0033134719619212 3 3532 17 2855
2386 -27.209899822276554 -3.7312303877179089 33.339129382058722 229 193 156 0.76584597166764545 17 638 25 941 24 611
29 -0.61249181873309588 0.6007491762529692 4.6821187184143245 38 17 0 1.7397383401812143 15 597 4 249 3 233 13 602 10 1758 11 707 8 1394 7 1422 12 742
286 0.18827142848288836 -0.022099030894468658 4.7148637233660029 131 86 70 2.6138617624540821 3 72 7 186 12 755
569 3.0144693963407865 0.50618063833447036 3.648412461295016 191 151 115 2.5178835419418277 3 3049 17 2769
2385 -29.283106791911855 -3.7263490300873086 31.301537363437109 206 170 148 0.47929856076621996 16 714 17 326 25 940 24 636
1137 -0.68136492253439518 0.57956269214045852 4.862500771816423 178 134 94 2.0737274167498079 13 699 10 89 7 127 9 76
1394 0.063920716114761092 0.36989681131903485 4.7228322503234876 49 16 5 0.53220305429487536 41 674 7 1735 8 1511
2384 -27.523142905038164 -3.174739629257584 33.387961014902977 149 113 92 0.49098708891791043 17 350 25 928 24 619
27 0.010593868598955482 0.42727081574953296 4.6245347383672835 157 125 94 1.9784164562480511 15 581 4 435 3 246 17 271
1136 0.18842209032246698 -0.8092337874544494 4.6014442274491527 229 205 141 0.39642407068033148 17 51 10 64
1135 5.1724880350411286 -5.9002651010470633 45.59677044059098 226 194 150 1.3098810924454294 15 57 10 62 8 59 12 60
282 0.027832128032926375 -0.51772826430893626 4.7689319408044168 121 78 54 0.99175496059813328 15 1731 11 1198 10 1673
1391 -0.32594028959198651 0.29704658187062882 4.6888376393683266 150 116 96 1.1112026466027192 11 836 13 1891 7 1706 15 1546
1133 19.970030384539978 -5.7820518429854033 39.686259979619265 172 162 113 1.439980456512199 13 67 8 58 9 41 6 38 5 44 12 46
2638 1.630408809454081 0.017373772086159981 3.6365746487357664 171 125 95 0.25161100770534517 42 3276 24 1323
281 -0.62470039099907826 0.61007424223399775 4.6754465647231376 172 141 110 1.6889874725100789 3 926 15 2715 11 1057 13 2720 12 1622
1673 21.421297937210397 1.0864016494566637 33.82006101140994 137 119 80 0.050723604816682158 10 2371 9 694
2380 0.22436182944210897 0.5291504138794394 4.8141152279775303 97 76 95 0.23890320206414267 42 400 25 737
23 0.099998259676993759 -0.93431202487934784 4.7214060433082672 204 187 152 0.71360134257659402 15 545 4 556 3 574 11 545 13 1002 10 1192 7 920 8 1295 9 1308 6 1204 5 1043 12 1115
1132 -0.59843979409084702 1.3257985216092598 4.8060129264052707 155 119 101 1.9187886118281468 13 32 8 29
2637 -37.997986283544051 -6.178758169402335 25.088733433920627 188 145 126 0.3660431756376516 16 694 25 1088 24 1284
280 -0.5441694840933331 0.34490388322059612 4.8039146169834552 127 65 52 0.9270155245710342 15 650 11 842 3 667 17 737 16 661 10 2873 7 902 9 682 6 346 6 1502 5 304 5 1780
2920 -34.145581513344901 -4.4542525246129721 -0.37686975722326477 190 164 139 0.63105857785310171 20 3383 39 1406
563 0.56896915765775735 0.2576971448819923 4.7911165759751686 90 57 30 1.6980377232899742 3 2461 17 2641 41 1268
2379 -31.89168597319032 -1.8234669508758647 31.935256327358168 136 105 82 1.2440860878853617 16 504 17 342 41 324 25 723 43 782 24 533
22 -0.36701162985302682 -0.65208955934090895 4.7061467023446983 48 34 0 1.2300144982092602 15 543 4 587 3 274 17 634 11 445 16 490 13 714 10 789 7 922 8 569 9 638 6 708 5 684 12 875 25 1087
1131 -0.74413405181693404 1.0301162145236993 4.4180722428673 131 93 74 0.12704002531150138 11 25 6 28
2636 -34.809182826750373 -2.3082024577482181 28.873606142101352 174 143 108 1.2396103754803642 16 986 43 1826 24 1261
279 -0.42396413475021 0.42021839451383819 4.6025454644896078 161 126 96 1.894991963232302 4 667 8 851
562 0.541095871252111 0.29338599567214635 4.7656476402234729 52 26 4 0.77616292284886823 3 664 17 2630
2378 -32.129103755118358 -1.6825599011760342 31.571025342871227 133 103 77 0.69798902781761929 16 501 17 339 25 720 43 466 24 526
21 -0.27579968568055735 1.430098448247781 4.7799057194055985 93 77 71 0.016635109630537798 15 517 4 330
1130 5.5126375507043726 4.2382979030976493 42.219618854487699 246 200 121 1.870987457173803 41 86 10 52 9 48
2635 -31.672642824768072 -2.0359109962469502 32.775551701867983 201 167 147 1.0819487056626362 16 657 43 1220 24 1258
278 0.14780297994761413 0.4314168292388445 4.7092703644821894 47 17 0 0.99286038183884207 15 2115 11 809 17 2025 13 2178 10 1634 7 1550 6 1073 12 2296
2917 -30.783397143302317 -7.3967407911140173 -13.870602253527878 238 195 143 2.6307803654454318 20 193 39 294
560 -0.21562899698404889 0.29347122557373984 4.8218121307743154 141 113 77 2.0845558844207441 3 2449 17 2613 15 1953 41 3107 10 1695
1669 -0.65350818780996389 0.69349627019054494 4.708747253370718 111 87 59 2.2856789820351429 10 830 13 2510 9 615 6 664
2376 -22.41411550947149 -1.1119066578914467 38.071781330543622 185 151 121 1.2790106453347854 15 314 25 712 43 319 42 232
19 0.18008939565604248 0.30079992258634786 4.7049189941200655 148 118 90 1.4088304350412668 4 1658 3 783 17 1806 13 1946 10 2427 7 1701 8 1658 9 996 6 1087 5 1742 12 2190
2916 -30.056095623537686 -8.2239173827429184 -14.985225806203841 172 160 172 1.4467743812818399 20 120 39 105
559 -0.34564598994514695 0.4358793092810081 4.6902232672460462 35 9 0 0.65841353760860455 15 2177 17 2600 10 2639
1668 -0.074555906252017135 -0.57633278939400279 5.119524809099369 200 171 110 2.0543989721017697 3 59 9 575
2375 -14.885998410035297 7.5829729004547319 46.146988300183409 163 143 97 0.11477681614282428 15 456 25 663
18 0.11742325251321414 -1.0129426238421491 4.722284911247006 52 34 15 0.77597368863448368 15 299 4 275 3 267 11 453 17 328 41 202 13 584 10 654 7 633 8 464 9 470 6 477 5 479 12 872 42 259 25 487
558 0.12421938582667415 -1.029574603766457 4.7260858527742506 153 148 130 1.0784113914184894 3 2397 15 1937 17 2566 41 3532 16 2832 42 2735 25 3866
1667 1.4896679133554034 1.6535323553244359 2.5482748551496535 21 18 24 1.7299110839321252 8 296 9 537
17 0.1119307038868471 -0.90505039922062103 4.7253678837813817 70 52 31 0.60858634026084413 15 295 4 283 3 186 11 245 13 310 10 653 12 329
1383 -0.34790356890527363 0.46010449148613947 4.5773069630907877 129 99 100 0.21841940847112887 11 1379 7 1559
557 0.61755577917770643 0.41805438364922148 4.7291198292191989 145 125 75 0.69481839360872499 3 2722 17 2547 13 2175
2373 -31.33760281129133 -4.2349246511691687 30.245035313715618 183 171 134 0.77452252318458281 16 326 25 524 43 1204 24 645
16 0.097361758955350416 -0.61159458207230399 4.7339632259550415 105 68 53 1.2311158440422467 15 283 4 133 11 247 13 306 10 344 7 272 13 202 8 234 9 207 6 239 5 213 12 331
1382 0.71846647877864378 -0.74136662301073486 6.8884336499454806 224 196 126 1.427990745882751 17 640 7 1533
556 0.14313557876103766 0.3781170353147732 4.7098397914618841 131 103 94 0.64828778613871008 3 2947 17 2539 41 3664 16 4298
2372 -27.971081042968756 -3.9017722713494694 32.316943056263838 164 125 91 0.5079405698217293 16 350 17 211 25 522 24 644
15 -0.65205668704558672 1.2724462906809133 4.8291012799388975 74 58 48 1.2079043759684294 15 144 4 79
1124 -0.41858221527626865 1.15744457308529 4.7851799652123432 82 34 30 1.6725904636295374 11 20 10 30 8 30 13 24
555 0.7328471589319504 0.20879216215505009 2.5935262611173804 95 68 33 1.1259152348005279 15 2249 17 2533
2371 -31.168680168923583 -3.9905347576924561 30.313940890898898 142 120 95 0.35082876690381148 16 351 25 521 24 514
14 0.62664555808528588 0.49693211686593541 4.7137185650229867 55 24 16 1.7187264334879548 15 106 4 98 3 76 11 163 41 62 13 103 10 290 8 89
2358 0.32842863945250622 1.0075075541774063 6.1725719094285072 51 47 41 0.98474347615322844 16 4254 25 310
1 0.214926549915647 1.3036781566156044 4.8016113246416054 58 20 14 0.67649814438530809 15 4 4 3 12 6
2615 -37.244224237119326 -2.5533064671014309 27.363143533892188 152 119 108 1.0381995877053567 16 290 42 272 43 307 24 411
258 -0.11838730441212497 -0.34588198354709243 5.1588366503042504 241 202 120 0.93528306609061418 3 209 9 1661
543 -0.018587204961381089 -0.5670520403415209 4.7772128744951914 139 137 90 1.7771280578280495 3 2113 15 1992 17 2409
2359 -29.13053948606477 -3.7015565043985852 31.973582841943944 156 119 97 1.9362121038462015 16 199 17 145 25 323 41 208 43 361 24 290
2 -0.41518420851340204 0.63454198450137933 4.7228332736402949 28 14 19 1.289200170121563 15 9 3 7 13 9 8 12 12 10
1111 8.5267781182059874 -5.2933852256494376 44.90237221490063 255 224 182 0.5298158903533795 15 2026 17 2396 13 1376 7 1528 9 1383 5 1044
544 0.39816396678525767 -0.24143785834323181 4.7333102304050829 198 169 120 1.3334220666125589 4 2032 17 2412 7 1790 6 1397 12 2310
2360 -33.767000113170766 -3.8985284363257469 30.966829790303585 151 117 95 1.3395385735114878 16 224 25 324 17 146 24 400
3 0.46249365731071873 0.61332765207912399 4.7387093768179609 36 13 13 1.5734790177861402 15 13 4 12 3 10 11 15 17 17 13 14 10 25 7 21 8 27 9 15 6 20 12 21
1112 5.8111090420211244 3.1340403787103299 40.220936090570476 237 222 112 0.61259374735682937 41 686 10 361
545 -26.813714606075305 -1.6594937560268321 35.752552711418438 117 87 70 0.74655755575045946 15 1754 17 2415 41 3377 42 3655 25 3630 43 2744
1654 -1.0510101295942893 -2.338612350669334e-05 9.0243343864012324 159 124 91 0.21913702330955581 8 566 9 322
4 0.31898784433813637 0.86208851428420352 4.7080544810955933 120 87 60 1.5872373128722193 4 22 3 16 11 29 15 20
1113 0.04607658572826228 -0.7014708690835979 4.7513416143098146 111 68 27 1.9327289287658349 4 3195 13 1997 10 2458 9 1378
546 -0.077902029455473226 -0.2059903834511688 4.7864087213467323 80 46 15 1.7457219122057825 11 1639 17 2417
1655 8.2863366386351291 0.43758709182626593 72.402296734135319 223 179 128 0.77321639572462253 17 1124 9 323
2362 -29.790574072492962 -2.1616414867374987 32.990338676047884 133 100 81 0.80551305966895048 16 291 17 223 41 217 25 334 43 299 24 379
5 -0.17991858722324455 -0.16662846460786113 4.6373736813946396 191 158 90 0.39580226867315049 15 25 4 9
2619 -34.607619341591842 -1.976188256415113 30.328685847196233 196 167 136 0.57293224458769598 16 315 25 726 24 534
262 0.093444301196449947 -0.50665551979189205 4.7406379662303291 115 70 50 0.83523096148914189 3 159 15 291 11 119 10 230 7 189 6 144 5 148 12 214
1371 -0.018841828034666309 1.4955260323275581 4.8431648070985984 74 50 42 0.55337480781556103 10 2023 7 1329
547 -0.11863742982537637 -0.064138011752762444 4.8004918333489162 154 109 75 1.7595328441104325 15 2054 17 2435 41 3393 11 1650
1656 -0.65993096666428286 -0.50228922560984934 5.3436137084384354 218 190 121 1.6888753815448894 4 1 9 330
2363 -28.521640782488085 -1.7752840345568188 33.133247349238864 176 146 104 0.86449693958141294 17 129 41 131 25 337 43 283 24 270 16 235
6 0.12791324801879855 0.26440416356402818 4.7407053053986346 79 42 40 1.6768015990750249 15 35 4 33 3 35 13 46 10 41
1115 1.2645943018018568 1.966479327932996 5.8201887232970551 136 118 113 2.2130913008075392 15 3021 13 2746
2620 -28.932259324519819 -2.2660220781123432 31.767903614677405 208 176 150 0.39522976793798287 16 286 41 327 24 538
263 -0.11897976139743541 0.43816893619554848 4.6639553696830207 107 80 45 0.38691932537088447 11 165 17 192
549 -21.505623502169485 -2.9559605274968082 36.898636722705952 104 80 44 1.1223014229364534 15 2073 17 2455 16 3850
2365 -33.363315767636372 -2.8012707518842297 31.641888739612014 120 87 73 1.479621986285607 16 499 25 429 24 315
8 0.6572940135393891 0.38763714903005581 4.7660768546297625 161 134 87 1.4414984273729174 15 42 17 59 16 47
1117 0.70192809831498837 0.95371970451116939 4.4807001697935798 100 82 41 1.3658269620752741 11 4 10 5 12 5
2623 -43.377405516239072 -2.8684210616597068 24.194644685607095 189 163 153 0.92450438525699796 16 277 43 554 24 543 42 453 39 321
266 -0.56424327687888631 0.35461681618986796 4.8316642410177391 88 40 26 1.1797387607578582 3 191 15 306 11 210 41 277 13 323 10 375 7 298 8 210 9 218 6 247 5 183 12 289
2908 -14.616073450335099 0.23914920765486183 5.4041925307828045 129 113 109 0.80335384723021219 20 3620 39 2388
551 0.36150821827071888 -0.32063797838873209 4.7560690903752842 202 168 126 0.55996307305410709 3 2632 41 1263 16 703
1660 1.1838348491586679 0.081217800109954386 6.8759341966150531 144 122 71 0.15015679824771988 7 1491 9 462
2367 -29.767920824771121 -1.9184989036527222 32.208806925280093 176 147 112 0.71244959703186561 16 297 17 343 25 433 24 517
10 0.18128413739075047 0.49562113458372592 4.6726206646779982 57 29 29 1.8982176086013764 15 48 4 61 3 41 17 60 13 76 12 64
2624 -34.433768895463167 -5.1126882005381376 26.81685067878005 240 196 170 0.1882378255359225 16 320 24 596
267 0.59409247099197182 0.61358828923221409 4.7246712213698761 111 87 65 0.65585315143045053 15 167 11 213 10 286
2909 -0.68352147327966062 0.0099778601265789833 3.1285735334835816 66 47 49 0.34571752410791418 20 3473 39 3046
552 -18.397059572381654 -2.5088353157825756 39.669763141430195 182 142 84 0.9028006427878269 15 2089 17 2466 16 2620 13 1690 25 3591
1661 5.8713465151771889 0.35155485167265926 28.428995613028281 201 164 124 0.41339010151137601 8 565 9 463
2625 -38.22136628792196 -6.4329644267429709 25.192208347314185 243 205 178 0.37281456768101301 16 324 25 905 24 610
268 0.080029636449188493 -0.57873204988608806 4.7476503442116122 82 41 25 0.52907743700732324 4 277 15 527 11 248 41 512 13 578 8 244 9 280 6 327 5 354
1377 -0.33189133418876926 0.049868094258272787 4.685782944717344 182 146 121 1.6888556268415611 15 1926 7 1489 6 1177 5 1022
553 0.36199983123328983 -0.30730359525244266 4.7371533210168657 66 24 2 1.4938282412157966 3 2631 17 2468 12 2253
1662 -0.36589101504539828 -0.036814828175034481 4.673454157792162 58 23 7 0.95143721671824677 8 567 9 466
2369 -29.182266247554097 -3.1910548836821948 32.269107837533831 184 143 116 0.80240399094596992 16 341 17 355 25 504 24 421
12 0.071775449207375053 0.41932168159848887 4.6859721204126057 155 129 77 1.2945665232339694 15 52 4 74 3 37 17 67 13 75 12 87
2626 -36.707698452113753 -3.1140010502859763 24.856603454898963 156 121 106 0.72917696202745019 16 518 42 647 43 793 24 627
269 -0.16278460123497135 -0.45785321079447278 3.3469043374038847 194 168 98 0.98870432435412448 15 183 11 249
554 0.57241865265990455 0.34376256819217044 4.7454094966051175 147 125 87 0.02586377252926849 3 2834 17 2509
1663 0.086147424464624769 -0.067909980825287444 4.7577436340936572 105 67 48 0.71897295544439899 7 518 8 458 9 467
2370 -29.144316091631687 -3.40843329655159 31.877299301196583 208 164 134 0.44533411534541195 16 478 17 356 25 510 41 341 24 615
13 -0.50074208276914933 0.42408989098827943 4.7718353462548482 149 120 71 0.72577532716606141 15 69 13 74 7 85 8 64
2627 -45.476990789062739 -3.5028718106885037 23.360335952022766 186 158 156 1.2831012338864749 16 227 43 559 24 631 42 652 20 332 39 333
270 0.086849510279023392 0.34228325759952205 4.7258064986870405 110 66 54 0.89944589802670827 3 288 15 307 11 261 41 275 10 694 7 536 9 307 6 343 5 303
1379 -2.7262302556147828 0.30110658646659355 10.432419530318956 218 180 134 0.44663849948101375 15 3159 7 1504
571 0.41618571604157933 -0.19357497784771621 4.7338239701002429 194 156 113 1.7868830121791013 15 2046 17 2906 5 1672 12 2309 9 1657
2387 -29.292199167853717 -3.8776903057812748 31.520919207164976 157 119 100 1.4997226452940702 16 716 17 636 25 942 24 642 17 210
30 0.5663203791339767 0.3113961536152503 4.7392277603181565 76 43 15 1.216784368709674 15 636 4 291 13 319
1139 -0.43809700592403622 0.4275453680859802 4.8492239244830362 167 133 97 0.79326880604187877 11 54 10 96 9 79 6 80 5 88
287 0.1749670855364692 0.42741968416176529 4.6993398336607921 42 10 1 1.6025094642303508 4 1605 11 1231 7 1981 10 2634 8 2704 6 1546
1396 -0.35904689915844124 0.41157572397173264 4.8211474412641522 37 11 0 0.746217808157839 10 1638 7 1746 5 731
572 0.55247966847608709 0.47564766162734984 4.6934381298827557 20 0 0 1.2096008125689737 3 2489 15 1816 17 3038 41 2654 13 2233
2388 -31.836582405502188 -4.0889648149837647 31.28988268197239 145 130 100 1.4290336020324466 16 484 17 322 25 943 43 570 24 639 41 310
31 0.3155647882782735 -0.49279877701952196 4.7269399059981927 242 210 162 1.3867509427595666 10 2442 7 1789 6 1347 4 310 15 657 17 2366
1140 8.2213075867418866 1.2182593139771365 46.77135046374422 245 194 111 3.1949969050434159 13 335 8 809
288 -0.3520812624521954 0.38273694621816906 4.6964139644234235 155 119 97 0.47337159238453974 15 1521 11 1237 13 1743 10 2607 7 1539 8 1322 9 1075 6 1497 5 1073
575 -0.094458270531849034 0.46396385495428633 4.7582338218212321 25 4 1 0.85413459239137179 17 3110 9 1490
2391 -26.775334619229444 -3.4035397855916192 34.631387430278885 227 184 138 0.61318742615490007 15 659 25 1054 24 1298
34 -0.4912021019945651 0.46646175505427406 4.6827711319928165 130 106 73 1.5562505530551096 15 823 4 433 13 595
1143 0.096705787763338852 0.42812801675145834 4.6882667385033194 144 112 95 1.1842132758125932 11 77 10 133 7 286
2649 -33.026822131271118 0.26215860118579465 35.701738703957808 159 125 112 1.3858476372323951 16 1195 25 3717 24 2041
292 -0.22812690394310109 0.33447733412222613 4.8278873950306442 155 122 85 2.3721186382063397 3 2874 11 1255 17 2720 41 5559
577 0.62398797081821966 0.55275819130724002 4.7274327655475288 133 121 102 1.3174679170780907 15 2687 16 2257 8 2688 9 1455 6 623 5 1454 12 2337
2650 -0.67458009400222951 -0.079425746083875357 4.1805539820204558 217 174 155 1.2718688700686314 43 2751 24 2046
293 -0.23731311473028266 0.3550788298374018 4.8128308703764491 152 120 86 2.4701388335392309 3 3758 15 2288 11 1260 41 2849 16 2573 17 1772 16 2562 13 1691 13 1923
1402 -0.10285744394069084 -0.14131608223103462 4.7871039916940239 198 161 101 0.83698150239604585 10 1662 7 1797 8 2404 3 4230
578 -0.58289038176094987 0.63253985424185466 4.7084493223826067 96 87 81 1.5419519292936892 17 3292 41 4355 9 2198
2394 -35.345998530360859 -5.0792707570844975 25.634430295612933 185 132 85 0.41624511428250921 16 1988 25 1092 24 1087
37 0.14225172989521953 0.35506510597915747 4.7066535776267369 169 138 119 0.74614037865988736 15 1005 4 654 3 714 17 1787 41 1388 13 1674 10 1688 7 1773 8 1281 9 1772 6 1547 12 1571
2651 0.063606042421880712 0.33868821936163085 3.6912653007099956 107 84 87 0.38284856943524243 41 695 24 3065
294 0.18333251523898977 0.26084256152777757 4.712767863292787 123 80 65 1.1243195284393999 3 289 4 1000 11 1288 15 310 10 2885 7 1718 9 980 6 1286 5 1101 12 756
1403 -0.20808048828507641 -0.13925394758592602 4.6070530820745539 66 26 1 0.32892544793697387 13 26 7 1798 8 1312
